# .PCD v0.7 - Point Cloud Data file format
VERSION 0.7
FIELDS x y z
SIZE 4 4 4
TYPE F F F
COUNT 1 1 1
WIDTH 1269
HEIGHT 1
VIEWPOINT 0 0 0 1 0 0 0
POINTS 1269
DATA ascii
0.057144091 -0.036259983 -0.027158346
0.061910488 -0.034855783 -0.028504523
0.072733901 -0.035767958 -0.027279595
0.076047935 -0.038177367 -0.025504697
-0.072640583 -0.033472661 -0.025887528
-0.067580946 -0.034443058 -0.027507026
-0.061840717 -0.034527484 -0.028874218
-0.056047309 -0.035135239 -0.028245863
-0.037938446 -0.035417754 -0.028895514
-0.032750145 -0.034466628 -0.028010342
-0.02601154 -0.032886289 -0.026650796
-0.022473304 -0.033179209 -0.027234055
-0.017293481 -0.033993959 -0.026503829
-0.012595529 -0.034750789 -0.025280071
-0.0064197974 -0.034464736 -0.025338572
-0.0034637495 -0.03437097 -0.025858052
0.0011294882 -0.034748714 -0.027095735
0.0061652982 -0.034978267 -0.026691733
0.016053917 -0.035638962 -0.026744956
0.028403146 -0.034397773 -0.027798433
0.033225641 -0.035036363 -0.028655933
0.044243425 -0.034353521 -0.025903832
0.047971591 -0.034352075 -0.02737565
0.061972331 -0.034727283 -0.026600299
0.066600427 -0.033472706 -0.027532216
0.070302188 -0.033787575 -0.026442755
-0.071048677 -0.027594352 -0.028945802
0.091522083 -0.027060509 -0.025311729
-0.071169607 -0.022182792 -0.028502526
0.088790983 -0.023436185 -0.025817472
-0.070595853 -0.015359185 -0.027679823
0.084998913 -0.015284161 -0.025254063
0.085446969 -0.018140869 -0.027965061
-0.070304319 -0.013522425 -0.027685365
0.085301943 -0.011472743 -0.026641188
-0.068908423 -0.0073636612 -0.027716059
0.085705921 -0.0075730328 -0.027832156
-0.069088303 -0.0045595383 -0.026643891
0.086067639 -0.0019796954 -0.027187683
0.086074963 0.0031528866 -0.026992189
0.085941233 0.007385137 -0.027207077
0.086023092 0.014151351 -0.026178708
0.086155564 0.01664451 -0.026163114
0.08668977 0.023655912 -0.028263349
0.088416614 0.029078707 -0.027375858
0.089187942 0.032024357 -0.025850523
0.087671354 0.038526934 -0.026952859
0.083534904 0.043863561 -0.029776249
0.08780244 0.043014999 -0.026581878
0.082745634 0.046952192 -0.029800337
-0.022953942 0.054528184 -0.027557621
-0.018187324 0.053852886 -0.026585586
-0.01078386 0.053943466 -0.028407356
-0.0084674014 0.053848382 -0.027065501
-0.0030204789 0.05437747 -0.027282262
0.0031663375 0.054692145 -0.02756561
0.008264401 0.054178618 -0.025728842
0.01372281 0.053805981 -0.026593579
0.019106224 0.053419113 -0.027322559
0.02343783 0.052965246 -0.026133342
0.025938949 0.052876055 -0.026320444
0.032450229 0.053339083 -0.028485894
0.038766731 0.053844437 -0.028363334
0.042785294 0.053798366 -0.027007308
0.048588645 0.053627409 -0.027932229
0.052367877 0.053125415 -0.028847508
0.05623731 0.052306119 -0.027784012
0.061326351 0.05121199 -0.026848298
0.066808045 0.052469343 -0.025891278
-0.066255659 0.059348628 -0.028687399
-0.062989078 0.057764202 -0.028380148
-0.057677064 0.056648478 -0.029253505
-0.052697249 0.055641919 -0.027838092
-0.048005458 0.055254627 -0.027244005
-0.042060625 0.055378173 -0.027827902
-0.037672147 0.055430721 -0.028849613
-0.03407621 0.055354603 -0.028420389
-0.027969003 0.05501603 -0.02679584
0.073249303 0.055047803 -0.026597507
0.078270927 0.057166342 -0.027601788
0.083710007 0.058998019 -0.025537634
0.080945946 -0.040524427 -0.024501296
0.087283194 -0.041023109 -0.023417078
0.091775447 -0.042087719 -0.022811959
-0.075446397 -0.03555765 -0.021292085
-0.070019998 -0.035226282 -0.024772638
-0.065205805 -0.035536934 -0.020459658
-0.058640651 -0.035019141 -0.021111505
-0.053850416 -0.034986548 -0.021730945
-0.048525732 -0.035082512 -0.021850461
-0.043442935 -0.034868855 -0.022112558
-0.036586922 -0.035105679 -0.022115668
-0.0082585709 -0.034669839 -0.021923596
0.0086624641 -0.035066936 -0.023696642
0.014433929 -0.036107492 -0.022093823
0.017192259 -0.036396015 -0.022179304
0.023069546 -0.035505943 -0.022496879
0.026951905 -0.035120837 -0.022609815
0.032324616 -0.035219185 -0.021640908
0.037554398 -0.035345968 -0.024893282
0.054136183 -0.035329439 -0.02276079
0.056873344 -0.035212848 -0.021198398
0.074050993 -0.0357504 -0.022841506
0.078912586 -0.037988823 -0.021369165
0.083590165 -0.038512215 -0.021794612
0.087881692 -0.038342524 -0.021884361
0.090883292 -0.03876825 -0.022499386
-0.071262047 -0.035241421 -0.024135109
-0.065681115 -0.034884993 -0.023303056
-0.062185887 -0.034585629 -0.023977492
-0.057931181 -0.034900613 -0.022107415
-0.048642755 -0.035081692 -0.021796938
-0.043334462 -0.034933347 -0.02265241
-0.037889507 -0.035289072 -0.024106704
-0.032844003 -0.034451976 -0.022840912
-0.028157739 -0.032859314 -0.023370845
-0.022359787 -0.032424122 -0.022049928
-0.016568467 -0.033765689 -0.020848701
-0.01224848 -0.034627333 -0.023637617
-0.0074961782 -0.034458771 -0.02220778
-0.0029936407 -0.034131758 -0.022146493
0.0024054472 -0.034342233 -0.021844048
0.0068501891 -0.034576945 -0.020364275
0.026943754 -0.035105485 -0.022344012
0.038326297 -0.034907233 -0.021238174
0.042065378 -0.033916373 -0.021485152
0.046451211 -0.033692397 -0.022767657
0.050749362 -0.034473568 -0.023314819
0.061391696 -0.034314439 -0.021560507
0.067814119 -0.033300731 -0.021466373
0.070441686 -0.033451121 -0.024732117
0.088437304 -0.034906063 -0.020043252
0.091996834 -0.032360751 -0.024165321
0.089256763 -0.026116751 -0.021603918
-0.072771937 -0.024508201 -0.020512594
0.08572726 -0.021869564 -0.020524433
-0.072961904 -0.01917026 -0.021708125
0.084969141 -0.016398689 -0.023691924
-0.072353773 -0.013542047 -0.022191187
0.084488809 -0.012951858 -0.021209255
-0.072107546 -0.008540201 -0.021776792
0.085038006 -0.0082218694 -0.021420402
-0.071450867 -0.0032410284 -0.0227402
0.08581204 -0.0036137328 -0.023664204
0.086080931 0.0033904451 -0.021846136
0.086341858 0.0077476674 -0.021651855
0.086329222 0.011980576 -0.02325825
0.086709753 0.019184154 -0.021653349
0.086714797 0.022450618 -0.02311435
0.086968035 0.027379414 -0.021901537
0.088906318 0.033479501 -0.021480033
0.089209817 0.033589408 -0.024765914
0.088845231 0.038938027 -0.02287106
0.088962577 0.040165115 -0.022728156
0.089953117 0.046804138 -0.023387779
0.090098411 0.048714064 -0.022900006
-0.053244028 0.054918375 -0.022947805
-0.048188061 0.054848794 -0.022563163
-0.044303849 0.054771092 -0.021246377
-0.028196678 0.054721314 -0.021740623
-0.023086397 0.054106735 -0.021195447
-0.017456794 0.05339957 -0.022260657
-0.012755637 0.05320438 -0.023538899
-0.007647193 0.053420711 -0.02179436
-0.0021069092 0.054112934 -0.02268187
0.0023218701 0.054391451 -0.024243081
0.0082731862 0.054048363 -0.022166431
0.013629003 0.053706903 -0.022530811
0.018157041 0.053510301 -0.022023041
0.021033898 0.053359348 -0.021552309
0.029379467 0.052750755 -0.023137903
0.032396764 0.052841682 -0.022748306
0.036609434 0.053121045 -0.023192374
0.043010253 0.053255357 -0.021170193
0.04835435 0.054062214 -0.023810312
0.052923474 0.053946167 -0.024354558
0.058879856 0.052509073 -0.022668205
0.06402152 0.052636001 -0.021715686
0.068049222 0.052805316 -0.021827245
0.07147333 0.052669093 -0.020252371
0.090172529 0.051346108 -0.021354737
-0.071238883 0.058288749 -0.022412725
-0.066132911 0.056262281 -0.021181196
-0.063229188 0.055747297 -0.021448871
-0.05804893 0.055404935 -0.023410307
-0.037513241 0.055271458 -0.023818286
-0.032644231 0.055090796 -0.022411412
0.077642627 0.057868779 -0.023313537
0.084889315 0.059229068 -0.023649951
-0.075217515 -0.035416838 -0.019199396
-0.070614897 -0.035432659 -0.018694291
-0.067826279 -0.035672888 -0.019179197
-0.063163303 -0.035930999 -0.017331095
-0.057389695 -0.035407938 -0.017077435
-0.052321222 -0.035037626 -0.017615186
-0.048259988 -0.035113934 -0.015488248
-0.044169638 -0.035133533 -0.017128769
-0.038317058 -0.035212997 -0.018632827
-0.01323686 -0.034673918 -0.017812213
0.012424807 -0.035851408 -0.018755021
0.018294729 -0.035839126 -0.017420141
0.022504874 -0.035404243 -0.018976459
0.032477275 -0.035020202 -0.016861327
0.036667995 -0.034996651 -0.017036526
0.039995469 -0.034386951 -0.018696999
0.056120902 -0.035218779 -0.016276395
0.062428471 -0.034755051 -0.017859191
0.078054041 -0.036905594 -0.01818572
0.08324524 -0.037267543 -0.017616399
0.087238558 -0.036439978 -0.019050945
-0.075282238 -0.034407385 -0.016352022
-0.073498376 -0.034968998 -0.017014928
-0.055455964 -0.03514982 -0.018826691
-0.048300344 -0.035103224 -0.015837273
-0.037905451 -0.035183813 -0.018801166
-0.032710612 -0.034343425 -0.017971592
-0.027956516 -0.032682072 -0.017406004
-0.022883445 -0.032829463 -0.016764175
-0.018219953 -0.033726681 -0.017745549
-0.012901294 -0.034810811 -0.017341882
-0.0089415675 -0.03481251 -0.018032715
-0.0024441427 -0.033944793 -0.017552016
0.0019050685 -0.033625681 -0.015617613
0.0075179446 -0.034127511 -0.016741447
0.023103328 -0.034279279 -0.01689939
0.027048871 -0.034167212 -0.017239066
0.032800082 -0.034978881 -0.015836878
0.03858893 -0.034549713 -0.01839208
0.044036318 -0.033543877 -0.018997394
0.048010703 -0.033603907 -0.018604968
0.051737491 -0.034084674 -0.016442452
0.056054082 -0.035153057 -0.016656891
0.067658342 -0.034116887 -0.018050717
0.072339326 -0.034534574 -0.018493747
0.087789178 -0.03461482 -0.017199079
0.087414667 -0.027917197 -0.016860474
-0.073214695 -0.023895286 -0.01763285
0.084653728 -0.021572793 -0.017251736
-0.073645569 -0.019004824 -0.016323281
0.084200963 -0.017205894 -0.019088764
-0.073692575 -0.013923726 -0.017750544
0.084033869 -0.013659989 -0.018852836
-0.073581286 -0.0084082363 -0.01745395
0.084296443 -0.0074043539 -0.017046798
-0.073102117 -0.0047889487 -0.018527579
0.085265547 -0.0025138706 -0.018829538
0.085388035 0.0019963009 -0.017415974
0.085734114 0.0068075685 -0.01629159
0.086445116 0.01336784 -0.018415419
0.086647704 0.01777458 -0.018024845
0.086457931 0.021757344 -0.01656886
0.086125955 0.029052896 -0.018137151
0.086308405 0.032407168 -0.017736517
0.087419912 0.037304554 -0.017047338
0.0884073 0.041574664 -0.017892623
0.075973727 0.049735423 -0.016848367
0.090042718 0.047557142 -0.016344069
0.090262122 0.047558419 -0.01701167
-0.067220278 0.054405998 -0.016619898
-0.063887417 0.054234952 -0.017012248
-0.057765815 0.0536981 -0.016554184
-0.054428369 0.054094881 -0.018553281
-0.048881926 0.054302994 -0.017387355
-0.041830644 0.05424628 -0.016459817
-0.03722522 0.054811832 -0.01919575
-0.033489998 0.054516058 -0.017362675
-0.029490469 0.054288715 -0.017239947
-0.024324907 0.0537773 -0.015955444
-0.019391058 0.053374507 -0.015513947
-0.01248747 0.052880332 -0.018638665
-0.0073131346 0.053514495 -0.017149281
-0.0026524442 0.054362748 -0.016264485
0.0020833658 0.054454304 -0.018840957
0.0090854634 0.054470394 -0.018198309
0.012040805 0.05431575 -0.017273534
0.018071812 0.054335363 -0.016498612
0.022788346 0.053518448 -0.018988661
0.027992012 0.053304683 -0.018771293
0.031844955 0.053779263 -0.016047245
0.038848713 0.053583592 -0.015560658
0.043128669 0.053378567 -0.017296521
0.047456488 0.05439553 -0.017517244
0.052741494 0.054741025 -0.018771023
0.057263114 0.054053888 -0.017784469
0.063284516 0.053123854 -0.017836692
0.067730159 0.052366693 -0.016359432
0.073461674 0.051295493 -0.017603572
0.075086296 0.05075103 -0.017504983
0.090482503 0.050968543 -0.016302308
-0.075117424 0.055287968 -0.017189534
-0.071142785 0.055250064 -0.017968565
0.051940143 0.054911204 -0.017170912
0.08970537 0.056941472 -0.017169129
-0.06704139 -0.035273466 -0.013053712
-0.062024564 -0.035525758 -0.012808527
-0.059081215 -0.03529295 -0.011992354
-0.053005967 -0.035256024 -0.010999873
-0.046736293 -0.035254631 -0.012598482
-0.042048167 -0.03562329 -0.013699925
-0.037738252 -0.035817038 -0.013136552
-0.032978565 -0.035428043 -0.010952824
-0.015588886 -0.035029605 -0.013781326
-0.011671158 -0.035456911 -0.011249748
-0.0078487564 -0.035016038 -0.01106904
-0.0033385418 -0.035129186 -0.010747233
0.031895343 -0.034751095 -0.013098077
0.058934186 -0.035633717 -0.012627547
0.062614456 -0.035351392 -0.01431713
0.074056074 -0.035101648 -0.011465421
0.077518694 -0.036156889 -0.011930671
0.082131796 -0.037209313 -0.012334759
0.087381333 -0.036701299 -0.013707993
-0.075590767 -0.032540768 -0.01088421
-0.072582185 -0.03437902 -0.013017682
-0.031539336 -0.034427144 -0.014153594
-0.027088556 -0.033724234 -0.011081915
-0.023235243 -0.034004062 -0.01204556
-0.012193495 -0.035189524 -0.013637282
-0.005887514 -0.034751099 -0.013704697
-0.0035902041 -0.03468461 -0.012854618
0.0029331525 -0.034188189 -0.012364681
0.0084496392 -0.034233179 -0.013801063
0.01190573 -0.034211997 -0.012148758
0.018033467 -0.033084311 -0.011682539
0.021954341 -0.032859009 -0.012911368
0.026613019 -0.033188704 -0.01223003
0.031953692 -0.03470825 -0.01312058
0.037791412 -0.034508575 -0.014099138
0.044128254 -0.033694707 -0.013418586
0.047025256 -0.033497453 -0.011834126
0.052772563 -0.034027956 -0.011630502
0.067348905 -0.034732848 -0.013491718
0.071668118 -0.034738261 -0.013538688
0.089097604 -0.034497537 -0.01296795
0.085808866 -0.025743818 -0.013142762
-0.073853999 -0.022696547 -0.011438827
0.084229648 -0.022434885 -0.012056275
-0.074016623 -0.016891848 -0.012224365
0.082721621 -0.01829515 -0.012379552
-0.074140429 -0.013572126 -0.01308278
0.082989916 -0.011462914 -0.014059836
-0.074158311 -0.0091813281 -0.011806666
0.082572162 -0.0069290702 -0.012763154
-0.073555604 -0.0013753591 -0.01228089
0.083677925 -0.0017145487 -0.013655101
-0.072906628 0.002047495 -0.011760292
0.083287857 0.0034824025 -0.012004804
0.083958 0.0077426108 -0.012425892
0.084788986 0.012338499 -0.013263287
0.084127627 0.017340453 -0.011700348
0.085452095 0.018719777 -0.013856683
0.085449882 0.022975782 -0.013900935
0.08411409 0.026373914 -0.011650855
0.085398979 0.02570118 -0.014095448
0.084396154 0.032782424 -0.013647096
0.084156804 0.036855143 -0.013212251
0.085120231 0.039232794 -0.013958007
0.081604384 0.042344335 -0.012389122
0.086792812 0.044059265 -0.013258514
0.077421144 0.049453381 -0.012573913
0.082476065 0.04706987 -0.01022193
0.08939074 0.048603591 -0.013077693
-0.077725314 0.052823901 -0.013413563
-0.071522228 0.053426884 -0.011290155
-0.068578176 0.053981386 -0.010677267
-0.062942006 0.053796776 -0.01156994
-0.057416338 0.052736681 -0.011358934
-0.053505354 0.052952074 -0.012435949
-0.04723027 0.053772304 -0.011512961
-0.042622197 0.053728532 -0.012559211
-0.036373496 0.053392574 -0.011543127
-0.033565074 0.053673446 -0.013192199
-0.026652627 0.053286757 -0.011377724
-0.022418855 0.053377975 -0.011526421
-0.015850693 0.052612424 -0.010542882
-0.01212144 0.052562781 -0.011214375
-0.0078987768 0.053166457 -0.012090722
-0.0036748513 0.054344554 -0.012539911
0.018262459 0.054650515 -0.013022564
0.022058139 0.054274861 -0.012690413
0.027044879 0.054128133 -0.012066664
0.032596681 0.053812064 -0.010349328
0.037340637 0.054194178 -0.010923805
0.042071525 0.054647069 -0.010541208
0.047927484 0.054758582 -0.014699257
0.053653106 0.055059716 -0.013150186
0.05778547 0.054572802 -0.012443527
0.063293956 0.05303764 -0.011670979
0.067813158 0.052113362 -0.011960945
0.071993865 0.051201705 -0.013378495
0.090882845 0.051269267 -0.012897818
-0.082589634 0.055102125 -0.011868409
0.00089188735 0.055507045 -0.01276081
0.0082459832 0.056575395 -0.011569116
0.011337399 0.055911776 -0.010687288
0.047039036 0.054889832 -0.011843946
0.052927792 0.05522975 -0.013135018
0.091964208 0.056848846 -0.012463114
0.090285666 0.060696669 -0.015003637
-0.05241821 -0.034988638 -0.0075761257
-0.047866371 -0.035158679 -0.0088646105
-0.042754881 -0.035716981 -0.0080725104
-0.038132101 -0.036029555 -0.0068173539
-0.031909846 -0.03521166 -0.0062686289
-0.02066128 -0.034972373 -0.0084550474
-0.016012479 -0.035393059 -0.0085012382
-0.01310016 -0.035032142 -0.0060882661
-0.008591908 -0.035067819 -0.0069339168
-0.0015983628 -0.035602164 -0.00720566
0.0021637413 -0.035558168 -0.0075336779
0.0071106078 -0.035395097 -0.0066790208
0.012474596 -0.035181075 -0.006336242
0.057890859 -0.035240296 -0.0089727584
0.073373079 -0.0353745 -0.0068496494
0.07751058 -0.037174925 -0.0056350227
0.081393197 -0.037249565 -0.0093934573
0.087292053 -0.037258405 -0.0083197765
-0.074649803 -0.033182625 -0.0071404749
-0.072625898 -0.034654498 -0.007377849
-0.067216873 -0.034809113 -0.0089170458
-0.062366072 -0.034469951 -0.0066621951
-0.056466673 -0.034688763 -0.0060486454
-0.052309904 -0.035040043 -0.0080442894
-0.031512525 -0.0350876 -0.0061318823
-0.027754763 -0.033914279 -0.0070533501
-0.020841563 -0.034962729 -0.0087832166
-0.005722858 -0.035229322 -0.0066949017
0.0065903384 -0.034862705 -0.0088037532
0.017629916 -0.033895772 -0.0062995572
0.021920064 -0.032672789 -0.0074248272
0.026215991 -0.032905914 -0.0077628531
0.033667903 -0.034746949 -0.008046343
0.038521856 -0.0334948 -0.0076876846
0.042802833 -0.033262927 -0.0087484345
0.047286291 -0.033805698 -0.0075001763
0.050384153 -0.034205578 -0.0069782054
0.056531254 -0.034944993 -0.0065618185
0.062964559 -0.034265637 -0.0069135427
0.068009354 -0.034095932 -0.0081036538
0.07267426 -0.035022229 -0.0081379525
0.089697383 -0.034778699 -0.0086377738
-0.076047868 -0.030015953 -0.0079164775
-0.074319519 -0.023379102 -0.0074944096
-0.073945507 -0.019056316 -0.0061112079
-0.073797241 -0.013830765 -0.0064566201
0.081103049 -0.013177471 -0.0080888895
-0.074028015 -0.0070315339 -0.0082817152
-0.073649429 -0.0037713202 -0.006449345
0.078773528 -0.002211458 -0.008394043
-0.072264396 0.003517542 -0.00791563
0.078802072 0.00085155055 -0.0080816792
-0.071191326 0.0070704268 -0.0078398362
-0.069587283 0.011620528 -0.0059349108
0.081494384 0.010412314 -0.0095947972
0.082260914 0.022654735 -0.0095309922
0.082041755 0.026031453 -0.0093696117
-0.072253108 0.034053221 -0.0061613033
-0.07346905 0.039006069 -0.0054114973
-0.074397996 0.043169975 -0.0073250844
-0.075573228 0.047611926 -0.0092007592
0.083384916 0.047771025 -0.0090829842
0.088603593 0.04898658 -0.0095707914
-0.072297513 0.052682094 -0.0058824737
-0.068169244 0.054544941 -0.0061107124
-0.062810086 0.053801559 -0.0082500214
-0.057857838 0.052516662 -0.0068829004
-0.051639639 0.053166434 -0.0059575285
-0.046669293 0.054093082 -0.0058355266
-0.042043235 0.054018084 -0.005929559
-0.037529755 0.053092465 -0.0068642958
-0.033795372 0.052764364 -0.0070257131
-0.029076271 0.052823108 -0.0067125824
-0.023464154 0.053869583 -0.0060043423
-0.017637791 0.053475954 -0.0059924913
-0.013702776 0.052434977 -0.0063057491
-0.0068193739 0.052866872 -0.0071931649
-0.0023616257 0.055119332 -0.0074033518
0.0084955916 0.054598268 -0.0056543639
0.013001484 0.054986157 -0.0076373694
0.0185891 0.053457923 -0.0065829526
0.023186877 0.05344845 -0.0072889626
0.026631206 0.053195324 -0.0063902019
0.031484731 0.053397164 -0.0063431207
0.036621224 0.053900734 -0.0064057098
0.041543458 0.05415751 -0.0068437471
0.047461294 0.054677438 -0.0075440467
0.052316777 0.054879054 -0.0079157064
0.057127953 0.054925948 -0.0069086086
0.062136624 0.054233946 -0.0071067293
0.065792412 0.053261656 -0.0067143124
0.07233239 0.051988915 -0.008718892
0.076938674 0.051264934 -0.0077302
0.082223356 0.050279133 -0.0059841163
0.087937497 0.050997391 -0.0053154714
0.090448745 0.053626962 -0.0058415118
0.0019400954 0.055981558 -0.0075410111
0.006339157 0.056695171 -0.0093251476
0.012849227 0.055431087 -0.0094541488
0.052391354 0.055029415 -0.0093065929
0.057053912 0.054903854 -0.0089495396
-0.041941173 -0.035276927 -0.0020132579
-0.037629746 -0.035245761 -0.0015323278
-0.030938741 -0.03460611 -0.0049652476
-0.0023044401 -0.035396401 -0.0033237669
0.0024513176 -0.035868656 -0.0027964362
0.0064875279 -0.035757605 -0.0033203058
0.012308641 -0.035410091 -0.0022989581
0.031495478 -0.034864869 -0.0019082398
0.048482645 -0.034540981 -0.0029093965
0.058890499 -0.035099566 -0.0012563164
0.072802201 -0.036084197 -0.0024765492
0.077114411 -0.037325047 -0.0040760683
0.081874028 -0.038248356 -0.002477708
0.086827807 -0.037369981 -0.0028627317
0.090151675 -0.035205383 -0.0014823092
-0.075351954 -0.032799833 -0.0019124486
-0.073273577 -0.034335051 -0.0022618079
-0.067237228 -0.034158058 -0.0018984835
-0.060550719 -0.034154292 -0.0018887551
-0.057397164 -0.03419435 -0.001946269
-0.053534668 -0.034626756 -0.0042372225
-0.047707956 -0.034821458 -0.003417558
-0.042768996 -0.035212811 -0.0020726495
-0.031867787 -0.034663558 -0.0020575938
-0.02765107 -0.033396106 -0.0026235166
-0.021591028 -0.033751916 -0.0035787646
-0.017406059 -0.033583447 -0.0023138709
-0.012047497 -0.034075357 -0.0021810543
-0.0062682535 -0.034504779 -0.0017105218
0.0004042931 -0.035632785 -0.00056739355
0.017843267 -0.034510743 -0.0016402582
0.022601673 -0.033672351 -0.002504637
0.027723281 -0.034239557 -0.0026583625
0.034221016 -0.034598004 -0.0024625247
0.039151315 -0.033337027 -0.0031169737
0.043342151 -0.033837598 -0.0029818253
0.046732005 -0.034691367 -0.00041595366
0.052864671 -0.034994952 -0.0019178371
0.056374528 -0.034901101 -0.0047563883
0.06237166 -0.034679744 -0.0020861807
0.067368768 -0.034328867 -0.0028792741
0.090310521 -0.034571078 -0.0047134184
-0.076072827 -0.027649317 -0.0021075946
-0.074822858 -0.022685168 -0.0021190313
-0.074057482 -0.017446669 -0.0024887291
-0.073859498 -0.013409413 -0.001957831
-0.073817998 -0.0074436348 -0.0038388614
-0.073469989 -0.0040005557 -0.0021596921
-0.07258679 0.0015400632 -0.0034854345
-0.071396619 0.0065682153 -0.00099351758
-0.070705831 0.011532112 -0.00054048345
-0.070993938 0.018582676 -0.0017005126
-0.071403399 0.021639144 -0.00071303657
-0.072478175 0.028223209 -0.00020613272
-0.072559312 0.032899238 -0.0025294428
-0.073182523 0.037391335 -0.0029517701
-0.073680803 0.04325946 -0.0010461052
-0.073883429 0.047416706 -0.0015599721
-0.0074902894 0.051789984 -0.002744233
-0.072577164 0.052693009 -0.0030988529
-0.067471579 0.054715458 -0.0033105223
-0.062757798 0.053747457 -0.0025251925
-0.057943039 0.053086769 -0.0027222293
-0.052155565 0.053986106 -0.00099310046
-0.047153994 0.054789647 -0.0015829141
-0.042399541 0.054364759 -0.0033820213
-0.036821116 0.05303039 -0.0037994874
-0.03147155 0.052491006 -0.003252205
-0.028831512 0.052766751 -0.0020837705
-0.023808211 0.054374915 -0.0025651613
-0.016918849 0.054584928 -0.00094408466
-0.012085169 0.051645767 -0.0040318016
-0.0068386137 0.052286651 -0.0023874408
-0.0025358242 0.054493286 -0.0034652059
0.0033762949 0.054193266 -0.00198935
0.0067707635 0.053964756 -0.0028740191
0.013161547 0.052580688 -0.0024319084
0.018131509 0.052492872 -0.0019030513
0.021773303 0.05277646 -0.0024665047
0.025999531 0.053006489 -0.0019866191
0.031490762 0.053378925 -0.0016549935
0.038171418 0.053426787 -0.00238603
0.042786174 0.053223357 -0.0024259703
0.048527766 0.05318417 -0.002617602
0.05287309 0.054026622 -0.003939745
0.058260508 0.054451108 -0.0023428972
0.064010844 0.054044344 -0.0014868792
0.069216341 0.0536233 -0.0012208567
0.072667398 0.053871095 -0.0030827443
0.076982588 0.053708944 -0.0016597811
0.082212165 0.053006969 -0.0014336404
0.087403417 0.053001262 -0.0028997504
-0.068381861 0.055154298 -0.0013579002
-0.042994648 0.055031426 -0.00095776399
-0.020417675 0.055010926 -0.0015052543
-0.019846722 0.054812625 -0.0016788985
-0.0031490489 0.053761143 -0.0011532512
0.0012967251 0.05538037 -0.0044666985
0.058385763 0.054769475 -0.0046832412
0.061242614 0.054562666 -0.003818485
0.088152938 0.056059029 -0.00023027029
0.090320081 0.056042861 -0.0025161139
-0.041019555 -0.035023849 0.0047108033
-0.03501834 -0.034882389 0.00010920002
-0.0024488952 -0.035221543 0.001055515
0.0024149406 -0.035517737 0.0016726671
0.00687186 -0.035293315 0.0019113729
0.013939229 -0.035169892 0.001090494
0.015197701 -0.035110939 0.00018180702
0.029736735 -0.034718689 0.0015714994
0.048123602 -0.034982983 0.0015643067
0.053184465 -0.035327308 0.0020475585
0.057719342 -0.035327811 0.0020479148
0.062600359 -0.035087764 0.0027718402
0.068985708 -0.035767935 0.003974481
0.070664987 -0.035746966 0.00097484252
0.07626202 -0.038102236 0.0028401515
0.082195096 -0.038131353 0.0019728737
0.087025307 -0.037358325 0.0010924403
0.090457074 -0.035948992 0.0034713792
-0.074812017 -0.033139389 0.0021151912
-0.07171791 -0.035115417 0.0025930421
-0.065962501 -0.034313541 0.003229779
-0.062756352 -0.034183554 0.0035758149
-0.058031879 -0.033795234 0.0029539661
-0.053279657 -0.034132265 0.001058175
-0.048625309 -0.034294467 0.0016307306
-0.043208681 -0.034801479 0.0023991682
-0.037837096 -0.034997649 0.0024933382
-0.031943552 -0.03444491 0.0035549356
-0.027018297 -0.033368252 0.0044294484
-0.022589106 -0.032821763 0.0022156683
-0.017557357 -0.032925818 0.0021701832
-0.010951503 -0.033220682 0.0027229616
-0.0067495639 -0.034175087 0.0034838985
0.0091035841 -0.034857005 0.0040060426
0.012128009 -0.035009697 0.0026346331
0.018385954 -0.034773428 0.0036033597
0.02255675 -0.034386288 0.003721768
0.028031938 -0.034720507 0.0013228353
0.034416456 -0.034397393 0.0014965719
0.038639426 -0.03375791 0.0021740738
0.041461885 -0.03408625 0.0038357012
0.046261836 -0.034815688 0.0033649539
0.050752759 -0.035210185 0.0019030516
0.062278446 -0.035050254 0.0021713704
0.065741777 -0.034891021 0.0016097572
-0.076479912 -0.028175419 0.0017535738
-0.074999295 -0.021849137 0.00092992181
-0.074373759 -0.017166289 0.002085428
-0.074168228 -0.012935371 0.0044940002
-0.073746622 -0.0087500699 0.0014221271
-0.073065042 -0.0014522163 0.0028984435
-0.072678857 0.0018869668 0.0037851075
-0.072373606 0.0070447531 0.0032353271
-0.072440371 0.013496539 0.003623425
-0.072565131 0.018059906 0.0033391849
-0.072834454 0.020802004 0.0040255492
-0.073321037 0.026940044 0.0034927491
-0.073268324 0.032733247 0.0039787791
-0.073042862 0.036567476 0.0032756163
-0.07324525 0.044144496 0.0045401454
-0.073263146 0.046842337 0.0037849201
-0.072181918 0.052654438 0.0021178653
-0.066587731 0.054873195 0.0026851497
-0.062388606 0.05412836 0.0019476326
-0.057786431 0.054128971 0.003415189
-0.052735023 0.05492495 0.0042563775
-0.048255291 0.055082675 0.0036246863
-0.041030888 0.054842014 0.0024715797
-0.036813706 0.054076914 0.0017521785
-0.03323428 0.053449083 0.0028374554
-0.028525691 0.053123657 0.0032402864
-0.024597574 0.054346699 0.0034169652
-0.012351017 0.053125396 0.0013838409
-0.0069126207 0.053057514 0.0031423462
-0.0013240883 0.054370914 0.0020490102
0.0039743911 0.053329747 0.0033872386
0.0080525512 0.052988939 0.0013987487
0.01305965 0.052474145 0.0022381602
0.018301064 0.052657127 0.0019769741
0.023907773 0.05315204 0.002861836
0.026693191 0.05326679 0.0031454824
0.032891061 0.053670641 0.0024848056
0.037435085 0.053654179 0.0037447601
0.04265444 0.052959308 0.0025005869
0.048702259 0.052385334 0.003273661
0.053393062 0.052464176 0.0023098872
0.058901686 0.054198667 0.0030191352
0.062951483 0.054252535 0.0043018316
0.067261599 0.053570218 0.0033913008
0.071666121 0.053478863 0.0028507665
0.075126685 0.054109283 0.0024720565
0.082370453 0.053579062 -0.00034983302
-0.067598283 0.055112675 0.0037876077
-0.052333843 0.054945838 0.0035703494
-0.047913279 0.055137675 0.0031894485
-0.03734817 0.054164458 0.0042055226
-0.021892525 0.055210881 0.0016579108
-0.018325863 0.055332515 0.0030072101
0.079472482 0.054777175 0.0023520757
0.081423253 0.055748779 0.0034798398
0.087258831 0.057493351 0.0024143595
-0.073198415 -0.034996439 0.007866852
-0.069612652 -0.034868337 0.0086703179
-0.051854819 -0.034630489 0.007066784
-0.046693411 -0.034837455 0.0097560221
-0.038088288 -0.035111628 0.0091937343
-0.031513885 -0.035196189 0.0078936256
-0.0028174475 -0.034836903 0.0061481418
0.0015644273 -0.035204053 0.0064822999
0.035507347 -0.034836672 0.0094713653
0.048116878 -0.035095524 0.0079021631
0.051695969 -0.035450518 0.0067442218
0.057302631 -0.035411403 0.0075587565
0.063113838 -0.035216123 0.0072990814
0.066569231 -0.03575176 0.0086538447
0.074359469 -0.037884969 0.0067545273
0.078060776 -0.037899423 0.0078914547
0.082626179 -0.037838202 0.0073908968
0.085818306 -0.037584927 0.0059342063
-0.071565278 -0.034988206 0.0065821982
-0.066902287 -0.033986367 0.0081338817
-0.060318083 -0.032951597 0.009229295
-0.056669466 -0.033805825 0.0084688105
-0.052277386 -0.034581251 0.0077407663
-0.0474107 -0.034851242 0.0065870727
-0.042855479 -0.034812305 0.0077599487
-0.037881047 -0.035118181 0.0089438232
-0.025704553 -0.033643462 0.0080136275
-0.021109618 -0.033243943 0.0069469749
-0.016519099 -0.032892101 0.007207917
-0.012292233 -0.032776535 0.0078483801
-0.0077238278 -0.033499755 0.009196193
0.0018640524 -0.035136782 0.00662567
0.0070725312 -0.034028474 0.0078106355
0.012341794 -0.034460578 0.008184012
0.016846519 -0.034760308 0.0076382519
0.023561001 -0.034421246 0.0065331999
0.028992876 -0.034500886 0.0064450176
0.034304369 -0.034364298 0.0058657792
0.038130302 -0.034367818 0.0072137071
0.043488514 -0.034915935 0.0081311166
0.060840689 -0.035305887 0.0055238227
-0.075950123 -0.027423687 0.0072549167
-0.075331867 -0.022088557 0.0067319619
-0.075039588 -0.018148515 0.007183502
-0.074322328 -0.012580924 0.0064677028
-0.073780194 -0.00655434 0.0080317277
-0.073419146 -0.00084397319 0.0087931184
-0.073571101 0.0016491993 0.0087294355
-0.074419945 0.0088766953 0.0084426869
-0.075282179 0.014089151 0.008957047
-0.075776756 0.018677248 0.0095695434
-0.074158631 0.017917212 0.0065099299
-0.075295538 0.021369345 0.0086561479
-0.074370869 0.02246215 0.0068231528
-0.074863389 0.026701946 0.0094062546
-0.074207634 0.02814739 0.0062160608
-0.073837586 0.03437686 0.0082009453
-0.073285036 0.03658545 0.006555547
-0.073305525 0.042262197 0.0070190141
-0.072290771 0.048679125 0.0083657075
-0.070728928 0.053805426 0.0072948486
-0.069473147 0.054603577 0.0079432763
-0.063248917 0.054541305 0.0072850259
-0.05833853 0.055016793 0.0086888559
-0.053046037 0.055189714 0.0085166795
-0.046424601 0.054351747 0.0074432041
-0.041922107 0.054092027 0.0067265253
-0.038674343 0.053672094 0.0078426125
-0.032347575 0.053285122 0.0072961585
-0.027915405 0.053387091 0.0079262778
-0.024018677 0.054297134 0.0085528987
-0.017883807 0.05518214 0.0086772982
-0.012620637 0.053992376 0.0070831859
-0.0075359805 0.053780064 0.0078373691
-0.0022389896 0.054067448 0.0083235549
0.0025258961 0.053776998 0.0075882436
0.0090247057 0.05357495 0.0059254752
0.014240738 0.053118635 0.0063992236
0.019314192 0.052874882 0.0064385235
0.021178385 0.05251649 0.0086058816
0.02616528 0.053615563 0.0085590268
0.03267923 0.054619532 0.0096468823
0.03741407 0.054249946 0.0077789421
0.042310659 0.053829081 0.0069036046
0.046993896 0.053618073 0.0081092305
0.053600304 0.053019788 0.0093968073
0.058575962 0.054352771 0.008106838
0.062860273 0.054475032 0.0065368679
0.067256898 0.053858954 0.0064872317
0.072702281 0.053823803 0.0069787819
0.075218812 0.054689068 0.0084193144
-0.069534667 0.054425027 0.0076782629
-0.057920519 0.054987814 0.0080253994
-0.052956607 0.055287994 0.0079505704
-0.018957373 0.055142768 0.0094726859
0.0077342247 0.054353788 0.0086600278
0.062525027 0.05493461 0.0091828713
0.078277901 0.055677485 0.0064214617
0.081607364 0.057061549 0.0068816133
0.085778274 0.058183812 0.0050927633
-0.072168581 -0.034956153 0.012864771
-0.051167361 -0.034701537 0.013675227
-0.035214193 -0.03536265 0.01194704
-0.031642284 -0.035343286 0.011351197
0.01367261 -0.035057027 0.014601649
0.015657717 -0.034896377 0.011836373
0.022586394 -0.035182394 0.014248984
0.026530914 -0.035281178 0.013119704
0.031971183 -0.03547015 0.012476912
0.037804537 -0.035671886 0.01272296
0.041814048 -0.035293069 0.01250504
0.046384972 -0.035027776 0.011570265
0.062866323 -0.034696702 0.013718649
0.067398757 -0.03562801 0.014620462
0.071967453 -0.037269298 0.011167017
0.077323645 -0.037875686 0.012933753
0.080611996 -0.03796757 0.012355876
0.085895807 -0.037810594 0.010370845
-0.070498742 -0.034691632 0.013847129
-0.065591149 -0.033143058 0.014553623
-0.061141234 -0.032816235 0.013385543
-0.057137523 -0.033327185 0.013106152
-0.052807719 -0.034539141 0.013110505
-0.047777731 -0.034868997 0.012101241
-0.042850778 -0.034433071 0.014171336
-0.038837891 -0.034737505 0.014117039
-0.026460538 -0.03413545 0.011817663
-0.020993004 -0.03306273 0.012960657
-0.016848791 -0.032684736 0.012336923
-0.011934254 -0.032870572 0.013424939
-0.0074652196 -0.033458464 0.013719441
-0.0035970728 -0.034075812 0.011425072
0.0015804624 -0.033809502 0.012419992
0.0058050281 -0.033585582 0.011829488
0.011554176 -0.034800738 0.013621244
0.018034335 -0.03483586 0.010956851
0.022981031 -0.03474097 0.011104752
0.02799491 -0.034924395 0.011014586
0.046027552 -0.035045054 0.011929425
0.052526608 -0.035007257 0.011579089
0.057601914 -0.034626178 0.012746989
0.062452324 -0.034637224 0.013905795
-0.076258041 -0.02780549 0.013156468
-0.075954989 -0.022737883 0.011299101
-0.075636633 -0.016546974 0.01188921
-0.075495683 -0.013137341 0.013251105
-0.074748836 -0.012086121 0.010580749
-0.074207351 -0.0070347618 0.011920522
-0.073853098 -0.00090560981 0.012823347
-0.074079037 0.0030200367 0.01289189
-0.074203908 0.0064485418 0.013997298
-0.076116405 0.013997942 0.011578209
-0.076440692 0.018028224 0.012127893
-0.075805582 0.022892827 0.013879885
-0.075075522 0.027935797 0.011908904
-0.075249083 0.028147841 0.012129844
-0.075378701 0.032992061 0.01414756
-0.074254915 0.037280079 0.012594781
-0.073168114 0.042892314 0.010789212
-0.072937153 0.046239126 0.012974902
-0.071960993 0.052821614 0.012466935
-0.069295675 0.054911558 0.011396118
-0.063925087 0.055110309 0.013247359
-0.051652312 0.054898724 0.011409831
-0.047072116 0.05411984 0.011234303
-0.042310201 0.053484533 0.011499425
-0.037167389 0.053193279 0.012053693
-0.033477828 0.053027853 0.013017267
-0.028839441 0.053004369 0.013372202
-0.023593694 0.05431113 0.011008968
-0.016961196 0.0548095 0.01282452
-0.012905847 0.054001763 0.01229857
-0.0070792083 0.054565642 0.012985473
-0.0020767376 0.054827701 0.013853901
0.0017029329 0.054669011 0.013341763
0.0082681179 0.054322537 0.011137467
0.014104456 0.053246249 0.011335623
0.01547723 0.053390581 0.014320116
0.021280678 0.052779797 0.012755927
0.025983199 0.053798746 0.014090874
0.03139076 0.05469612 0.012679984
0.037527703 0.054555371 0.012180543
0.042377718 0.053978261 0.012552427
0.047483642 0.053251326 0.013382182
0.053010065 0.052131269 0.013167954
0.056343783 0.05293002 0.01171256
0.062768236 0.054639887 0.011746692
0.068157636 0.054241579 0.011135204
0.07190232 0.054224662 0.012067835
0.075134948 0.05469276 0.013549702
-0.063423596 0.054947209 0.012561399
-0.058018163 0.055199519 0.013578488
-0.052037686 0.054935411 0.011917068
-0.020712081 0.054808535 0.013840453
0.0019808703 0.054634579 0.012978179
0.029883545 0.054546759 0.013582596
0.075077593 0.054679312 0.012889367
0.079683885 0.056696896 0.012323049
0.079972595 0.056936838 0.013241709
-0.072832778 -0.036240034 0.01862341
-0.06975209 -0.037079636 0.019376561
-0.052758969 -0.035215143 0.018133949
-0.048049152 -0.034968402 0.017813336
-0.041901674 -0.035603181 0.019504812
-0.037249975 -0.035242066 0.017887473
-0.032523386 -0.03537751 0.016195692
-0.028875889 -0.035297472 0.01912511
-0.014437106 -0.035044365 0.020012394
0.012173434 -0.035759188 0.019422019
0.01765014 -0.035604917 0.017839534
0.023976689 -0.035902962 0.018174484
0.029063012 -0.036171492 0.017921973
0.032740451 -0.036233075 0.018647974
0.036796127 -0.036168639 0.017004857
0.041314434 -0.036173515 0.017347634
0.046221413 -0.03506282 0.018752819
0.062119838 -0.035133276 0.018289268
0.067147709 -0.03589844 0.016314244
0.072977081 -0.037724007 0.017139405
0.077736877 -0.037710767 0.016284637
0.080346674 -0.03776275 0.01766978
-0.075520881 -0.032243852 0.018719723
-0.071066804 -0.035736475 0.017095461
-0.065414362 -0.033782054 0.017586594
-0.061886773 -0.033823438 0.018430201
-0.058435228 -0.033453461 0.016734393
-0.053082667 -0.035030238 0.017393084
-0.048294894 -0.035060611 0.018010883
-0.043698154 -0.034940157 0.0179857
-0.032972448 -0.035514437 0.017266411
-0.026846983 -0.034622598 0.016613306
-0.020781701 -0.034044467 0.016973753
-0.016316697 -0.033872895 0.01750095
-0.011162528 -0.033978958 0.017665178
-0.0075560533 -0.03390529 0.016612025
-0.0025179253 -0.034106001 0.017274642
0.0023383819 -0.033993345 0.017545426
0.0066689565 -0.034130577 0.018075924
0.018858861 -0.03565982 0.018543534
0.022725414 -0.03531586 0.015103417
0.046651382 -0.034768973 0.01733504
0.051203806 -0.033957534 0.017223146
0.056161791 -0.034632213 0.016553842
0.061215848 -0.03475628 0.016277248
0.065228149 -0.035495501 0.017105518
-0.077195391 -0.02668675 0.017573765
-0.077099569 -0.023299063 0.016253239
-0.077684239 -0.0176882 0.018897025
-0.076423466 -0.013808637 0.016120851
-0.076081708 -0.0064675733 0.018694062
-0.076033711 -0.0022266186 0.019352535
-0.075147271 -0.0032469658 0.017193943
-0.075078249 0.0031353 0.019219192
-0.07440754 0.004352489 0.017866319
-0.074836917 0.0095314961 0.016310915
-0.076207913 0.014279443 0.017240627
-0.076472066 0.01631807 0.017201524
-0.076357655 0.021871455 0.018400731
-0.0751772 0.02718785 0.017399525
-0.076103725 0.032700386 0.017078053
-0.075851932 0.037440632 0.017553503
-0.075832352 0.042355083 0.019195583
-0.074744321 0.041615233 0.017507598
-0.076022014 0.047361813 0.019131912
-0.074082144 0.048719306 0.016310923
-0.075756647 0.051095609 0.019445267
-0.073835477 0.052999709 0.017431391
-0.050737932 0.054499004 0.016546581
-0.04677197 0.054291986 0.016175
-0.04160605 0.054313317 0.01658635
-0.03734725 0.05475568 0.017460326
-0.033969812 0.053704146 0.015327727
-0.029149652 0.053720597 0.015425689
-0.024129413 0.054789349 0.016035998
-0.017961113 0.054960668 0.01657024
-0.012566912 0.054635361 0.017267203
-0.0025992605 0.055225972 0.018984599
0.0040257364 0.054430954 0.015543568
0.0086606154 0.054137226 0.016444739
0.012828578 0.05433609 0.016955944
0.016240699 0.054007996 0.016311614
0.020867437 0.054561045 0.017531944
0.027858747 0.054802824 0.015987054
0.031870876 0.055099707 0.015787285
0.037239254 0.054525346 0.016803298
0.042158749 0.052831274 0.017261891
0.047569867 0.052879237 0.01733648
0.052471351 0.052125927 0.016320594
0.057787601 0.052994192 0.015609426
0.06309931 0.054789606 0.017903117
0.066996396 0.054270498 0.016942335
0.070590511 0.053744931 0.018276444
0.076280423 0.054680839 0.017632982
-0.070343748 0.056175672 0.017034777
-0.069700457 0.056110188 0.016283419
-0.064188622 0.05684289 0.017545348
-0.057692636 0.056147166 0.018134935
-0.053012479 0.055393502 0.019610222
-0.038959168 0.056185011 0.01948191
-0.031806819 0.055647742 0.018872362
-0.025371004 0.056173965 0.019710237
-0.022613743 0.054855946 0.015609369
-0.018457839 0.055045303 0.016706664
-0.007706204 0.055312637 0.017769009
-0.0029979155 0.055133935 0.018427404
0.003295172 0.05469957 0.019989163
0.013496681 0.054942705 0.018587129
0.019400185 0.055268746 0.018931005
0.022427736 0.055534314 0.019176673
0.027864896 0.055575203 0.018437784
0.032013059 0.055089384 0.016481351
0.06408865 0.054548327 0.015562715
0.076810427 0.054935411 0.017319357
0.080607451 0.056889512 0.017391879
-0.07193663 -0.039067455 0.023069082
0.060150083 -0.039328687 0.023918359
0.067862339 -0.039875116 0.02496748
-0.072240263 -0.038716327 0.023153163
-0.068314865 -0.037945922 0.022875289
-0.06237505 -0.036977116 0.022696547
-0.058718074 -0.037333563 0.023133747
-0.053340189 -0.038060538 0.023341132
-0.046907507 -0.036838591 0.022299351
-0.042340349 -0.037122436 0.022913152
-0.036665432 -0.037316464 0.022520905
-0.032540299 -0.036662534 0.022173865
-0.027323546 -0.035861272 0.024298551
-0.020798637 -0.035638772 0.023952464
-0.019885054 -0.035273954 0.021239594
-0.012399648 -0.037083972 0.023018157
-0.0075889421 -0.037176523 0.023728548
-0.0034142975 -0.036063835 0.023066537
0.0011988725 -0.035056733 0.023284299
0.0073195607 -0.035297085 0.023047293
0.014212814 -0.036696345 0.023155052
0.019014262 -0.036402229 0.022568399
0.023501668 -0.036436331 0.02240435
0.026169732 -0.036698032 0.023907552
0.032441419 -0.036101881 0.024180228
0.035848293 -0.036349449 0.021197023
0.041830573 -0.037140731 0.022767518
0.046747968 -0.036662225 0.022841429
0.051763803 -0.036294632 0.022630915
0.057880715 -0.037216745 0.021042626
0.063632555 -0.039225101 0.023362504
0.068408012 -0.038703982 0.021810433
0.072115786 -0.03948646 0.022847749
0.076757297 -0.03818848 0.020474086
-0.077558689 -0.032652941 0.023810716
-0.027386179 -0.035789981 0.022337681
-0.017895658 -0.035152391 0.020587418
-0.0040618097 -0.035397023 0.020853709
0.0016630553 -0.035106972 0.023638843
0.0075131496 -0.03476344 0.020695621
0.050055247 -0.03499797 0.020384692
-0.07795433 -0.028538346 0.021709008
-0.079124719 -0.021030875 0.023757834
-0.079035342 -0.017166588 0.02293608
-0.078351565 -0.012411139 0.021874562
-0.077710442 -0.0074510993 0.02187133
-0.078473724 -0.0016511685 0.022721397
-0.079331689 0.0029954966 0.024150241
-0.077620573 0.0029802434 0.022454722
-0.077091806 0.0079978732 0.022473633
-0.075443663 0.0065222206 0.02001261
-0.077412635 0.011259083 0.022992244
-0.077947505 0.017721485 0.02214339
-0.077905841 0.022743087 0.022556722
-0.07720194 0.028863762 0.021557502
-0.077851705 0.033910338 0.02111816
-0.080003418 0.039278772 0.024291812
-0.07860703 0.036456242 0.021938378
-0.077766262 0.041764617 0.021358117
-0.080231853 0.047099609 0.024464509
-0.078470416 0.04747539 0.021836048
-0.077896804 0.051930539 0.022393981
-0.00027357414 0.055260342 0.020274939
0.0031064556 0.054854054 0.020727862
0.0085482821 0.055358559 0.022314208
0.037432566 0.05511076 0.021712622
0.042962 0.052723836 0.022048917
0.048423957 0.054182831 0.021863567
0.05442958 0.05378782 0.020282805
0.058206387 0.054724276 0.020540522
0.06143314 0.055341594 0.020765368
0.072614565 0.054333743 0.021234022
0.075863719 0.054809649 0.020341892
-0.075305961 0.055447843 0.02202055
-0.072277226 0.057262622 0.021077469
-0.065690421 0.059470423 0.021889644
-0.061632041 0.060042825 0.022699242
-0.058048323 0.058458194 0.021967225
-0.05241134 0.057207704 0.022553366
-0.046976712 0.056590755 0.022036821
-0.042320199 0.057832152 0.022433406
-0.037444942 0.057788793 0.021410637
-0.031035898 0.058649853 0.023263669
-0.026535841 0.057588872 0.022693235
-0.022908367 0.056509122 0.021349529
-0.018247889 0.05601646 0.021333262
-0.012917116 0.055770643 0.02221947
-0.0079252413 0.056670029 0.022654554
-0.0026825429 0.056618758 0.023119308
0.0024396807 0.056246012 0.025171308
0.0078708259 0.05476762 0.020394158
0.013310055 0.056477711 0.022152036
0.018594656 0.057796475 0.022850316
0.023945823 0.058336332 0.023584224
0.027680691 0.057757456 0.023962189
0.031854179 0.056437571 0.022018425
0.048380226 0.056620259 0.024448922
0.053095836 0.056848351 0.024245001
0.057472304 0.055349238 0.022458117
0.063611329 0.055863578 0.021517547
0.068516932 0.056509271 0.023559704
0.073439121 0.056920774 0.024268471
0.077276237 0.055994283 0.021781048
0.080278628 0.05753329 0.02060266
-0.06068667 0.060108889 0.023034761
-0.038085043 0.059529059 0.024078738
-0.057841219 -0.044416104 0.03022106
-0.052940581 -0.044148237 0.030675786
-0.061802771 -0.040883895 0.028073382
-0.057787489 -0.041056637 0.026909199
-0.052863151 -0.042536799 0.028605517
-0.047532469 -0.04100392 0.028179983
-0.04496197 -0.04103747 0.029401409
-0.039118018 -0.039773677 0.027920177
0.057541497 -0.039862048 0.027180266
0.062302765 -0.040357634 0.029690934
0.066212811 -0.040503934 0.028845681
0.070832528 -0.040391572 0.027846862
-0.076942772 -0.036480851 0.027524747
-0.073090427 -0.039389379 0.026481967
-0.067984067 -0.039771732 0.026982024
-0.061073326 -0.0397464 0.026517525
-0.056903739 -0.040017042 0.025829336
-0.052576277 -0.039483652 0.025088921
-0.046241049 -0.039692242 0.026703466
-0.042452551 -0.039847691 0.027054299
-0.0381408 -0.039895162 0.028449252
-0.03437788 -0.039152257 0.027428873
-0.028924746 -0.036701042 0.027925687
-0.021929117 -0.034935866 0.028421342
-0.017158208 -0.036709689 0.026997104
-0.012327065 -0.038488299 0.028047027
-0.0075414153 -0.038344495 0.028444216
-0.0034988397 -0.037340079 0.028048374
0.0014473675 -0.035895348 0.027315199
0.0074925069 -0.036497638 0.027453542
0.01241615 -0.036892753 0.026652375
0.017223006 -0.037386201 0.027156936
0.020916473 -0.037483234 0.029091785
0.026151998 -0.037135545 0.028370405
0.031266239 -0.036280677 0.028343437
0.037389062 -0.036247052 0.026358517
0.041836433 -0.037892379 0.027965821
0.047895852 -0.03783701 0.027660292
0.053030007 -0.038662203 0.028137244
0.057604544 -0.039821018 0.026481638
0.063762881 -0.040093634 0.025998667
0.077391639 -0.039502189 0.02602401
0.080372222 -0.039846286 0.025149286
-0.079363458 -0.033002045 0.028518146
-0.025995074 -0.035383057 0.028585838
-0.022200506 -0.034873083 0.028885227
-0.080590919 -0.028498175 0.028840002
-0.079321943 -0.027868988 0.025398117
-0.080070429 -0.021944897 0.026827462
-0.080441296 -0.017201051 0.027699169
-0.080381408 -0.012498116 0.027096285
-0.078995287 -0.0060949367 0.025858527
-0.080285639 -0.0019467494 0.028168801
-0.079540141 -0.0020823556 0.025195239
-0.080575734 0.0025660614 0.027029784
-0.080369942 0.0064842938 0.029696155
-0.07968048 0.0071924096 0.025978597
-0.079230025 0.011246249 0.027705731
-0.078804016 0.018644731 0.025897158
-0.079063699 0.022556534 0.026667023
-0.079791196 0.028474929 0.026905676
-0.079731837 0.032312721 0.025807517
-0.080683574 0.038850751 0.025919503
-0.080958091 0.042665962 0.025890986
-0.080987491 0.046281617 0.025721891
-0.08060126 0.050521996 0.027039565
-0.079094119 0.052736897 0.025646554
-0.075475819 0.057087626 0.025541771
-0.071313694 0.059551101 0.02521473
-0.051131375 0.058825105 0.025460169
-0.047743633 0.058324371 0.025126385
-0.042386211 0.060239404 0.026383163
-0.039064787 0.060065784 0.0250475
-0.027299117 0.059646878 0.026623301
-0.02283082 0.058043499 0.025155259
-0.01753423 0.058741406 0.026589004
-0.012594555 0.059161168 0.028268125
-0.0071520689 0.058665734 0.027247319
-0.0025256295 0.05883101 0.028544914
0.0018684511 0.058083583 0.028285714
0.0073011094 0.057051677 0.027686086
0.012547426 0.058048375 0.026738502
0.028601862 0.059320644 0.028239051
0.032389402 0.058439612 0.027953964
0.037393905 0.058506452 0.028469494
0.041791379 0.057049692 0.026443977
0.047688209 0.059468687 0.027107749
0.05368476 0.059669103 0.02834597
0.057127316 0.058505226 0.027376639
0.062199466 0.058124755 0.026176523
0.067579769 0.059084378 0.025881927
0.071231917 0.058748379 0.025956072
0.075687304 0.059187476 0.026057569
-0.066678293 0.061877228 0.025901794
-0.062401369 0.06185542 0.025146376
-0.05829937 0.062403336 0.026567278
-0.052935369 0.060895581 0.027093021
-0.04210376 0.061198033 0.028390771
-0.036364689 0.060793534 0.026471557
-0.032317221 0.0604099 0.026695328
-0.02733016 0.060365088 0.028336946
-0.020857209 0.060321283 0.028297679
-0.016889825 0.060462508 0.028857548
0.012087747 0.060562517 0.029108776
0.016796544 0.060985114 0.028196028
0.022592669 0.060612407 0.027640373
0.026352815 0.060258739 0.028588591
0.033569023 0.059810616 0.029425249
0.043875273 0.060234658 0.029416701
0.050397739 0.059747566 0.027820073
0.063996732 0.059801053 0.028391782
0.067589901 0.061052039 0.028057812
0.0073908009 0.065929003 0.029714264
-0.05400173 -0.045329634 0.03298128
-0.072670743 -0.040359065 0.032130044
-0.067637905 -0.040476006 0.030648431
-0.060760461 -0.043625485 0.031675898
-0.056622148 -0.044497248 0.030350052
-0.050580237 -0.043012444 0.030155241
-0.047425147 -0.042622209 0.03114388
-0.041460793 -0.040824059 0.030114301
-0.037446711 -0.040665314 0.031860866
-0.033497795 -0.040633131 0.033161975
-0.0047301087 -0.041115243 0.0329553
0.061933868 -0.040054191 0.031404383
0.067253724 -0.040346697 0.030243507
-0.080416128 -0.03586407 0.032948699
-0.078206562 -0.037628785 0.032334432
-0.035856005 -0.040328406 0.031826563
-0.030547975 -0.038936719 0.032777071
-0.028620899 -0.037542287 0.032785036
-0.023885584 -0.035142194 0.033992235
-0.017318865 -0.036450256 0.030701729
-0.011989729 -0.038915295 0.031568587
-0.0072253342 -0.039132793 0.030607516
-0.0011723307 -0.037584133 0.030784806
0.0029231913 -0.037523061 0.031129526
0.0084224688 -0.039865471 0.033701748
0.012863611 -0.037707597 0.030866833
0.016593331 -0.037749957 0.030986758
0.02177757 -0.037768617 0.031579539
0.026307631 -0.037807398 0.03184985
0.030791868 -0.037030604 0.031820685
0.036205556 -0.035984151 0.030436616
0.041918684 -0.037987817 0.03139836
0.048089392 -0.038748316 0.031434253
